# .PCD v0.7 - Point Cloud Data file format
VERSION 0.7
FIELDS x y z intensity
SIZE 4 4 4 4
TYPE F F F F
COUNT 1 1 1 1
WIDTH 1179
HEIGHT 1
VIEWPOINT 0 0 0 1 0 0 0
POINTS 1179
DATA ascii
34.235245 -4.1886897 316.40247 8.1086998
34.110306 -5.3921585 316.767 2.1219428
34.255772 -4.7550716 316.77454 5.122066
52.192318 -4.7167602 316.6673 5.0774312
52.174778 -4.233655 316.75171 6.0775013
34.156517 -3.914598 316.68427 9.1153641
52.121304 -3.8334908 316.72812 7.0774775
34.141243 -5.3368111 316.84375 4.0375376
34.193024 -4.9823546 316.87036 5.0375986
34.234455 -4.9818473 316.95673 4.614748
34.151123 -4.7008872 316.84735 6.0375929
34.152061 -4.3724236 316.84457 7.0376215
34.097946 -4.0318894 316.97864 8.0374393
34.225735 -4.1053839 316.86835 8.1218824
52.445412 -3.7687955 316.97092 7.0704207
34.146999 -5.3520718 317.1694 4.0371909
34.257519 -5.0093174 317.18069 5.1074848
34.237774 -4.7590351 317.03641 5.121408
52.267677 -4.7383242 317.08704 5.0709534
52.445606 -4.6752186 317.01266 5.0705013
52.252029 -4.2750015 317.08636 6.0672712
34.132484 -3.9302351 317.07452 9.1213455
52.24762 -3.8155363 317.12646 7.064033
34.136581 -3.7132075 317.18674 9.0372839
34.257469 -5.2861137 317.22198 4.107429
34.266144 -5.023828 317.36932 5.569644
34.256901 -4.5395494 317.31564 6.7489066
34.187363 -4.2585263 317.37823 7.0370889
34.271706 -4.2209802 317.28018 8.1073189
34.268433 -4.1669383 317.32935 8.1022367
52.459839 -3.8508172 317.20801 7.0778313
34.223778 -4.7533751 317.50616 6.1070805
52.383186 -4.7310467 317.48447 5.0644526
34.321152 -4.5739918 317.55438 6.1201367
52.360218 -4.3018498 317.46088 6.0712757
34.173424 -4.0409698 317.41873 8.0370417
34.200336 -3.9518259 317.40665 9.1072388
52.393433 -3.81917 317.46582 7.0644307
34.272629 -5.3561802 317.78799 2.1194537
33.131111 -4.7732601 317.71207 7.1009283
52.237095 -4.7384787 317.74689 5.0749393
34.283039 -4.5318127 317.71854 7.1067181
52.175823 -4.2422833 317.71906 6.071321
34.18716 -3.92152 317.65634 9.1199026
52.203548 -3.8774159 317.70929 7.0784411
52.17308 -3.7926161 317.74371 7.0713344
34.254578 -5.3761706 317.86545 4.1065817
34.171146 -4.7285266 317.80457 7.1000671
34.313919 -4.443264 317.9502 7.1063824
34.169075 -4.3721247 317.95795 7.0363617
34.177689 -3.9995632 317.80154 9.119523
34.328606 -3.9559658 317.86172 9.1064653
34.193481 -3.7535579 317.95667 9.0364437
34.302338 -4.9120216 318.13342 5.0362582
34.324657 -4.7899113 318.02676 6.1062789
34.231987 -4.2526898 318.01859 8.1064072
52.282345 -4.2303562 318.1817 6.0650859
34.193432 -4.0592523 318.10721 8.0362272
52.21505 -3.8317173 318.19467 7.0650616
34.274323 -5.2194152 318.20456 4.0361047
34.312958 -4.6132321 318.23361 6.0361652
52.224712 -4.7922139 318.25748 5.0651422
34.236099 -3.8244729 318.31384 9.0360289
34.35685 -5.3621573 318.55347 2.1174612
34.330132 -5.1500807 318.46585 5.1057653
34.330429 -4.887949 318.44382 5.5708165
52.269295 -4.7056866 318.49139 5.0722837
34.342072 -4.5258222 318.44 7.1057673
34.365395 -4.2671251 318.54721 8.1056108
52.211426 -4.2677164 318.50284 6.0722823
34.328297 -3.9412255 318.49884 9.1117582
52.281403 -3.8137395 318.41568 7.072156
34.316917 -4.9338651 318.79993 5.0353575
52.266624 -4.8659997 318.61731 5.0793309
34.312267 -4.6449976 318.63702 6.0356102
34.354095 -5.2015181 318.91882 5.105248
34.406158 -5.0464525 318.96054 4.0352221
52.410034 -4.795897 318.85397 5.0658441
34.359947 -4.5273304 318.9054 6.5702486
34.353409 -4.3126764 318.96454 7.0352144
52.217457 -4.3221784 318.85031 6.0657492
34.301926 -3.919837 318.93396 9.0758972
52.344334 -3.8414819 318.86249 7.0658102
34.272919 -3.863822 319.16238 9.0348549
52.427372 -3.9387028 319.02023 7.0795703
34.392227 -4.9029493 319.31506 6.1047964
52.394157 -4.7906766 319.34387 5.0663581
34.369045 -4.2401724 319.32129 8.1048069
52.355576 -4.3276787 319.27884 6.0662651
52.443676 -4.301024 319.23468 6.0731502
52.403969 -3.8419783 319.29813 7.0732112
34.305027 -5.4083252 319.50742 3.0342088
34.431824 -5.1110802 319.44482 4.6098881
34.352257 -4.903501 319.45233 5.0344009
52.313072 -4.7479506 319.50064 5.073503
52.439053 -4.4042196 319.47266 6.079987
52.26955 -4.3076172 319.54965 6.0735493
34.401459 -4.6030455 319.6958 7.1044245
34.357445 -4.4110603 319.73724 7.0339794
51.081619 -4.3311267 319.66125 6.0606608
52.448898 -3.8552957 319.67844 7.073657
34.461838 -5.2411041 319.83267 5.1042399
39.843952 -5.2936707 319.98557 6.0952539
41.008038 -5.2506328 319.9791 6.0943451
34.440052 -4.9507551 319.8671 6.1042314
52.397404 -4.9051495 319.86465 5.0616617
52.35532 -4.7775178 319.96429 5.0705395
51.299911 -4.4169312 319.84763 6.0809503
34.407127 -4.2577257 319.88483 8.1042423
52.432663 -4.345449 319.86972 6.0616851
34.332909 -4.1480703 319.82031 8.0338326
51.342804 -3.9938533 319.82681 7.080883
52.321777 -3.8860226 319.90762 7.061646
34.46962 -5.1989932 320.177 6.1008101
34.47456 -4.7538943 320.05151 7.1008387
34.375877 -4.4101443 320.07303 7.0334158
34.413101 -4.451364 320.02448 7.1137819
34.463829 -4.2448239 320.05737 8.1008339
52.330109 -4.3308678 320.01196 6.0670595
52.393211 -3.8722925 320.14868 7.0742207
34.302097 -5.6077766 320.37354 2.0326707
34.403889 -5.4026666 320.26154 3.0330112
34.495186 -5.168407 320.27411 5.0397778
34.531216 -4.883635 320.22211 5.1131911
52.434322 -4.8921442 320.37787 5.0620813
34.471462 -4.782692 320.27051 6.0397778
34.472439 -4.3807669 320.28809 7.0397916
52.396675 -4.335784 320.26328 6.0673647
52.597542 -4.3451347 320.21356 6.0742779
34.420868 -3.9196453 320.20844 9.1039419
52.59502 -3.8677733 320.35229 7.0675192
34.399513 -3.661515 320.25659 9.0397768
34.479866 -5.3126936 320.42957 5.103725
34.467041 -5.0057154 320.45703 6.1037121
52.576126 -4.7991819 320.51575 5.0677161
34.43446 -4.277523 320.47186 8.1037226
34.377922 -4.0240483 320.40018 9.1129522
34.484898 -4.0017281 320.43988 8.0397167
52.363049 -3.8925815 320.47418 7.0621114
52.435997 -4.8123879 320.67334 5.0748639
34.518143 -4.6838655 320.76642 6.6076679
34.387215 -4.4570193 320.70309 7.0393696
34.493027 -4.4430928 320.66248 7.0324354
34.428757 -3.888031 320.70477 9.0323343
34.484009 -5.3684912 320.9332 3.1116273
34.381454 -5.1425714 320.94186 5.0391235
34.556076 -4.8970599 320.86652 5.1117039
34.466171 -4.7244716 320.99936 6.1115232
34.530994 -4.2600622 320.8927 8.1116915
52.434822 -4.3725247 320.91492 6.0751219
52.627007 -4.3495507 320.8833 6.0681367
34.429432 -3.970619 320.9296 9.0318756
52.537384 -3.8980885 320.85971 7.0687981
52.686142 -3.8793774 320.93301 7.0681982
52.447807 -4.8740563 321.11469 5.0626884
34.080482 -4.7897453 321.16309 6.0386114
34.325455 -4.7726283 321.1153 6.0389371
52.441959 -4.7923746 321.08087 5.0683241
34.027004 -4.4782357 321.13055 7.0386
34.308575 -4.4616776 321.0462 7.0389972
34.532173 -4.4425278 321.10477 7.0315714
34.514599 -4.5076351 321.26132 7.1109285
52.481438 -4.3456759 321.38739 6.0658102
34.422501 -5.6338849 321.49429 2.1105528
34.399223 -5.4579544 321.53854 3.1104977
34.506077 -4.6827397 321.59579 6.110271
52.554688 -3.8986986 321.48901 7.0659242
34.458206 -5.2220678 321.62247 4.11027
34.522671 -4.9687347 321.60455 5.1102295
34.4841 -4.5320497 321.64825 7.110199
34.573521 -4.2898569 321.69614 8.1099997
34.436279 -4.0493045 321.68069 9.1102018
34.530003 -3.9233627 321.71945 9.1027164
54.256519 -3.8963492 321.76727 7.0641413
34.553566 -5.1803765 321.93265 6.0435109
34.62188 -4.6587591 322.00803 6.1232347
34.544319 -4.0588865 322.30396 9.1089334
52.911896 -4.8671575 322.50439 5.0767303
34.573154 -4.4558196 322.47433 7.1220813
34.577702 -4.0709362 322.49805 9.1220617
53.10611 -3.9619009 322.54413 7.0766621
34.580147 -5.4386468 322.71674 2.121387
52.605251 -4.8626924 322.68967 5.0770364
52.801739 -4.4705577 322.6528 6.0769057
34.564724 -4.0324831 322.67459 9.1216145
34.62928 -5.1140552 322.93646 5.6048775
34.585197 -4.5569043 322.841 7.1079955
52.738392 -4.483561 322.92419 6.0772099
34.62561 -4.3013558 322.99988 8.1018867
52.866257 -4.3952665 322.92426 6.0705476
52.851112 -3.9817162 322.95795 7.0771775
53.013672 -3.9270713 322.97861 7.0706091
34.615555 -5.4287515 323.1434 2.1203082
34.630123 -5.3672142 323.08572 4.0372949
34.747192 -5.0480762 323.19019 5.0373502
52.750313 -4.8401103 323.00085 5.0706425
34.61454 -4.7502432 323.0282 6.0373926
34.603012 -4.4547253 323.11584 7.0393677
34.572201 -4.1834979 323.00952 8.037406
34.577839 -3.8781188 323.04602 9.0373964
34.625614 -4.9537416 323.22797 6.0413251
52.892246 -4.8579836 323.27145 5.0648584
52.738449 -4.3994212 323.28876 6.0709691
52.850513 -4.3487496 323.29895 6.064858
52.704147 -3.9969394 323.29364 7.0775762
52.968761 -3.9353757 323.35992 7.0680037
34.633713 -5.3388433 323.45676 4.0368514
34.63884 -5.0733061 323.42844 5.0720277
34.616653 -4.4481769 323.41687 7.0369549
34.637859 -5.5787501 323.67032 3.0365634
34.713581 -4.8806157 323.70233 6.106576
34.702984 -4.6991768 323.66672 6.0778375
52.784985 -4.4316549 323.68185 6.077949
34.715965 -4.1970501 323.75159 8.0366802
34.641449 -3.9156425 323.79242 9.0365534
34.282581 -5.7936983 323.82037 1.1185008
34.291111 -5.5746069 323.80127 2.1185644
34.650707 -5.3073001 323.86877 4.0363412
34.755577 -4.9591455 323.9603 5.0363855
34.682056 -4.630775 323.97357 6.0362997
34.770035 -4.4875116 323.97287 7.0364299
34.571117 -4.1555028 323.8909 8.0363102
34.657429 -4.0691285 323.87802 9.1184816
52.692192 -4.0246778 323.90298 7.0781865
34.444519 -5.7581816 324.14136 1.1176836
34.459164 -5.5449133 324.15799 2.1176538
34.678963 -5.5415401 324.02515 3.0361433
34.690163 -4.6291819 324.11328 7.1060786
34.62516 -3.9295173 324.05334 9.0361786
34.655735 -5.5153227 324.30347 3.5707846
34.69347 -5.1890244 324.28052 5.1058793
34.702892 -4.9987316 324.36002 5.0357466
52.756184 -4.8424587 324.20731 5.065722
53.033569 -4.8972859 324.38785 5.0722809
52.714085 -4.4460001 324.28635 6.0657778
52.970001 -4.4382181 324.3584 6.0722332
34.681351 -4.2105036 324.2309 8.0359774
34.612762 -4.0868835 324.24097 9.1117668
52.739716 -3.9509351 324.29849 7.0657921
52.818134 -3.9665771 324.33862 7.0721998
34.503487 -6.174849 324.56641 0.1165606
34.463276 -5.7763076 324.58167 1.1165597
34.389095 -5.5827093 324.58005 2.1165996
34.698669 -5.4978232 324.52954 3.0354421
34.782722 -5.1974807 324.43399 5.1055751
34.68779 -4.6054454 324.49957 7.1056213
34.724422 -4.1268868 324.4671 9.1168842
34.774548 -5.2344084 324.70386 4.0352974
52.864517 -5.0113506 324.60043 5.0788164
34.740326 -4.8715453 324.70493 5.5379825
34.768082 -4.6666799 324.75674 6.0352607
34.777454 -4.4883404 324.7312 7.0353298
34.654293 -4.3025947 324.69724 8.1054392
34.766758 -4.1409163 324.78125 8.0352707
34.699028 -3.99581 324.69135 9.070385
52.705299 -3.958312 324.64993 7.0661416
52.812729 -3.9274678 324.61798 7.060833
34.718243 -5.5210428 324.88443 3.5700917
34.780956 -5.0798879 324.8121 4.1158814
52.781605 -4.5118804 324.85907 6.0609851
34.727539 -4.3614335 324.90488 8.105114
34.545338 -4.0105658 324.97144 9.0346966
34.680405 -4.0961332 324.87039 9.1158342
52.696518 -4.0734253 324.97467 7.079196
34.723442 -5.1014543 325.00113 4.1154146
34.719131 -4.9508719 325.07565 6.1049571
52.730865 -4.8990335 325.00519 5.0730295
52.774109 -4.4738622 325.10135 6.0730319
34.616154 -4.1884761 325.00891 8.0347071
52.701096 -3.9675107 325.09195 7.066607
52.853134 -3.9903753 325.0976 7.0730896
34.728481 -5.5982761 325.39117 4.1046414
34.729439 -5.2976532 325.22598 5.1047974
52.846684 -5.0702949 325.36627 5.0795188
52.904686 -4.9300427 325.36224 5.0669899
52.775928 -4.5309505 325.35425 6.0795183
34.691689 -4.3201675 325.29797 8.1047564
52.637489 -4.0883031 325.27887 7.0795002
52.653198 -3.9984207 325.33478 7.0733938
34.392509 -5.8723903 325.52753 1.1142837
34.398766 -5.6503391 325.54163 2.1142561
34.752605 -5.287488 325.4295 5.0401993
52.74366 -4.9194818 325.48364 5.0735922
34.721222 -4.5068932 325.45312 7.0724134
52.881325 -4.4738479 325.47556 6.0735445
34.731777 -4.06673 325.48618 8.0402088
52.717609 -5.0905628 325.69308 5.0798707
34.894108 -4.7325268 325.67554 6.1135931
52.840332 -4.4612436 325.62894 6.067246
34.731796 -4.3326864 325.71054 8.1043081
52.615887 -4.0082664 325.62769 7.0737453
52.628258 -3.9818637 325.71484 7.0672593
34.75856 -5.0266037 325.93488 6.1040859
52.788841 -4.9231648 325.80527 5.0674334
52.857368 -4.9477797 325.94321 5.0741072
52.687317 -4.5195446 325.82584 6.0769768
34.757679 -4.1177044 325.88052 9.1132336
52.712852 -4.0427175 325.97281 7.0617638
34.760574 -5.3350048 326.06467 5.1039772
52.662067 -4.9162908 326.1734 5.0678053
34.836178 -4.5255437 326.04608 7.1038756
52.705173 -4.4888206 326.10849 6.0699487
34.805218 -4.3921337 326.15854 8.1004133
52.666702 -4.0222907 326.03528 7.0742135
52.863785 -3.9882264 326.04868 7.0677023
34.84726 -5.562274 326.26788 2.1121874
34.856621 -5.3659697 326.31592 4.6061988
34.791866 -5.0626497 326.35501 6.1036868
34.935932 -4.9772635 326.22595 5.1122098
34.84988 -4.529407 326.25983 7.0326734
52.746662 -4.5033741 326.32587 6.0745516
34.761536 -4.3534269 326.37054 8.1036968
34.885719 -4.1687708 326.28003 9.1121607
52.823486 -4.132422 326.23346 7.0802288
52.774742 -5.0550933 326.44424 5.0621767
52.70134 -4.4841981 326.49432 6.065177
34.776154 -4.0761647 326.53317 9.0320711
34.824383 -4.1288977 326.4859 9.1117573
52.614025 -4.0187359 326.48773 7.0714369
34.83033 -5.3009777 326.67242 5.0713978
34.793201 -4.8993959 326.64981 6.0393882
52.713821 -4.9702849 326.60983 5.0749035
34.800133 -4.7342796 326.65094 7.1034322
34.786674 -4.536644 326.6626 7.0393934
52.667099 -4.5198312 326.75983 6.075067
34.75367 -4.1190834 326.67563 8.5355253
52.787491 -4.0516162 326.62799 7.0623236
34.68103 -3.7874136 326.60678 9.0393581
34.946762 -4.8649302 326.93835 5.6106153
52.734554 -4.9909 326.96597 5.0753016
34.95319 -4.5896087 326.99698 7.1104894
34.831341 -4.0671992 326.85172 9.1109524
52.642952 -4.0568724 326.98962 7.075314
34.932095 -5.4213471 327.13824 3.1102126
52.729252 -4.9303937 327.19464 5.068994
34.912991 -4.790309 327.13647 6.110249
52.730232 -4.540494 327.16989 6.0755115
34.880005 -4.3711462 327.07108 8.1104298
34.815575 -4.1415348 327.15128 9.1103487
52.738163 -5.0359912 327.20721 5.0627847
53.048302 -5.0483236 327.36636 5.063087
52.712173 -4.4913626 327.26279 6.0659356
34.882931 -4.1430111 327.31958 9.1099291
52.678856 -4.0418673 327.3515 7.0660033
34.84697 -5.5243301 327.45102 4.0387325
34.858101 -4.8702593 327.51132 6.0387373
34.843456 -4.5343747 327.51123 7.0387425
34.801224 -5.5850034 327.79333 2.1222901
35.101307 -5.0535975 327.71359 5.1088753
52.873161 -4.5032372 327.67197 6.0632515
34.898277 -4.0766439 327.70734 9.1091681
52.733028 -4.0691957 327.79395 7.0632792
34.975937 -5.5064306 327.88126 3.1087418
34.991802 -5.2757778 327.85233 4.1087723
34.92659 -5.1369057 327.89795 5.0384417
34.940674 -4.8005743 327.90305 6.1087532
35.008297 -4.631361 327.81296 7.1088233
34.88628 -4.5459404 327.85873 7.1222949
34.922192 -4.3159857 327.91214 8.1087637
34.902802 -5.5547757 328.0676 4.105402
34.914909 -5.1561766 328.00439 6.1023645
53.955772 -4.9445186 328.01514 5.0701041
34.887264 -4.745183 328.01886 7.1023779
53.378647 -4.7206545 328.12244 6.0814152
34.838413 -4.4059296 328.06003 8.1024017
53.897736 -4.5399709 328.0426 6.0701151
34.922127 -4.1542463 328.06479 9.1084957
34.913548 -4.1868997 328.34091 9.1211033
34.843567 -5.368916 328.42902 4.1079965
34.853302 -5.167747 328.51147 5.107851
34.895973 -4.8963947 328.49295 6.107821
34.851997 -4.6440268 328.50421 7.1078629
53.323776 -4.5289078 328.53668 6.076766
34.83334 -4.3834286 328.53903 8.107832
34.85268 -4.1939845 328.49658 9.1206617
34.924026 -5.4617434 328.61978 4.0376635
34.958904 -5.1494699 328.71704 5.0376258
53.361641 -5.0475893 328.69122 5.0769291
34.922089 -4.835372 328.65717 6.0376687
34.910484 -4.5325198 328.66 7.0376735
34.925117 -4.1141376 328.70663 8.037674
53.173458 -4.1192207 328.68723 7.0769558
53.237457 -4.0601392 328.78497 7.0708723
34.932323 -3.9677958 328.76944 9.0376253
53.098763 -5.0492811 328.94226 5.077281
53.084587 -4.9884205 328.81299 5.0709291
34.920704 -4.5334873 328.97714 7.0373249
53.348564 -4.5440569 328.85635 6.0709763
53.41832 -4.5548186 328.9938 6.0771866
53.119141 -4.9974608 329.07239 5.0712323
53.274723 -4.0947003 329.09048 7.0696464
34.885979 -5.4174676 329.25348 4.0368719
35.009235 -5.1135168 329.32361 5.0369763
53.16354 -5.0265036 329.36533 5.0649557
34.902393 -4.901123 329.33008 5.5775275
35.075485 -4.952147 329.28729 5.1184826
53.127289 -4.5526838 329.38739 6.0715818
53.257675 -4.5172863 329.28198 6.064909
34.960056 -4.2817521 329.24753 8.0370731
34.875778 -4.0001311 329.37064 9.0368299
53.280285 -4.0923467 329.25781 7.064889
35.004059 -4.577642 329.40106 7.0369167
34.964745 -4.1263299 329.57782 9.1177464
34.885468 -5.6308088 329.74982 3.0362074
53.258904 -5.1113586 329.72589 5.0779824
53.477089 -5.0436592 329.72348 5.0719795
34.960392 -4.6242032 329.74039 7.1172566
53.254082 -4.5881567 329.69769 6.0779352
34.986599 -4.1897264 329.7066 9.1173811
53.140606 -4.1630993 329.74362 7.0780096
33.783253 -5.6982384 329.80853 4.1073756
34.945465 -5.3605623 329.9328 4.0360589
34.947029 -5.0925455 329.9115 5.0361142
34.935684 -4.8896308 329.94766 6.0709448
35.087788 -4.9721966 329.89987 5.1167574
33.965256 -4.7350063 329.88788 7.1070595
34.372543 -4.7112789 329.91791 7.1065211
34.662109 -4.6949134 329.95282 7.106101
33.79216 -4.4187346 329.95236 8.1071815
53.166359 -4.5684128 329.83063 6.0720949
53.084076 -4.0951614 329.87457 7.0721312
34.661263 -5.619009 330.12799 4.1059041
35.003418 -5.5190334 330.07428 4.0384583
34.85886 -5.2867446 330.03009 5.1057501
35.014004 -5.0259538 330.04858 6.0410843
53.203232 -5.034615 330.01865 5.0723281
35.079407 -4.9839559 330.11874 5.1161513
34.884014 -4.6862712 330.03229 7.1057038
34.854454 -4.4337082 330.02017 8.1057558
35.023155 -4.5796642 330.14258 7.0384808
34.888615 -4.2020888 330.08176 9.1163788
34.97118 -4.1143184 330.12573 8.7275133
34.96624 -5.6030006 330.29761 4.1052961
35.033054 -5.0638447 330.34479 5.035604
53.341637 -5.0324864 330.21683 5.0658665
35.071606 -4.994709 330.30661 5.1156373
53.354469 -4.5280075 330.2923 6.0659366
34.994686 -4.2075758 330.30829 9.1157246
35.014294 -4.3066921 330.25333 8.0357847
53.137089 -4.1147575 330.36243 7.0659151
35.025124 -5.549499 330.46506 3.0353632
35.095264 -5.0020056 330.49918 5.1151013
35.029129 -4.833766 330.59241 6.0352364
52.659584 -4.6275921 330.59781 6.0790596
35.005234 -4.5788026 330.5166 7.035347
34.979919 -4.0879812 330.42047 9.0355062
35.034752 -4.1437597 330.56497 9.1048794
35.106834 -5.3343687 330.66574 5.1046944
35.082733 -5.0134735 330.65137 6.1047368
52.707756 -5.0864182 330.63147 5.0760899
35.022842 -4.7206097 330.76523 7.1046948
52.643997 -4.5794048 330.60779 6.0730491
34.990692 -4.3171272 330.61316 8.0352001
35.065636 -4.3973732 330.78723 8.1046066
52.546349 -4.2077465 330.68564 7.0791793
34.974682 -4.0982566 330.63925 9.0351582
52.580566 -4.1240277 330.66794 7.0731096
34.987633 -5.6780362 330.83932 4.1046848
35.039268 -5.3291245 330.93192 6.1007895
35.019257 -4.4250464 330.81375 8.1008329
52.544762 -4.5903029 330.96698 6.0734925
35.071983 -4.1456475 330.84818 9.1045303
35.084209 -5.3903356 331.11707 5.1042714
52.413033 -5.0230455 331.05026 5.0736327
52.596607 -4.6589608 331.15198 6.0795979
52.631485 -4.6084819 331.13803 6.0665522
35.046272 -4.4098454 331.19269 8.1042299
35.03112 -4.3714986 331.12473 8.0344
52.53326 -4.2301989 331.16672 7.0796251
52.543518 -4.1369438 331.03323 7.0735521
52.683632 -4.12393 331.12769 7.0639668
34.969536 -5.6704292 331.20035 2.1133394
35.09211 -5.6889701 331.2756 4.104116
35.148685 -5.2377667 331.35486 5.1039557
35.153011 -4.74721 331.32449 7.1039672
52.644779 -4.6751132 331.2113 6.0614238
52.717995 -4.1384134 331.38959 7.0668473
40.405846 -5.6092167 331.50925 6.0949588
41.424809 -5.5697508 331.49799 6.0941834
52.834473 -5.2449064 331.40027 5.0616803
35.083176 -5.0834746 331.44196 6.1039605
52.47081 -5.0573092 331.45435 5.0668564
52.740734 -4.6180439 331.5701 6.0670657
52.825321 -4.6173768 331.40359 6.0739594
35.074532 -4.4211707 331.58292 8.1038303
35.036297 -4.382041 331.57761 8.0335836
52.715401 -4.1523285 331.45468 7.0740194
35.044186 -5.6458282 331.64236 2.1122057
35.110718 -5.3436871 331.75604 5.0401034
52.712242 -5.0755177 331.70798 5.0743551
35.074394 -4.6544471 331.76633 7.040092
40.606781 -4.667294 331.70715 7.0947819
35.01667 -4.2655025 331.72476 8.0400743
35.15411 -5.4078403 331.8403 5.1035233
35.109554 -5.1242571 331.91348 6.1035137
52.833496 -5.083663 331.97333 5.0675564
35.1049 -4.969192 331.80984 6.0400796
35.114517 -4.7840052 331.88889 7.1035204
35.087246 -4.4303789 331.91556 8.1035261
35.062481 -4.2695203 331.9689 9.1114788
52.716824 -4.2170296 331.86734 7.0619674
52.900978 -4.1521254 331.99072 7.0675702
35.039459 -3.8993571 331.8808 9.0400114
35.006214 -5.7100573 332.10916 2.1111825
35.154678 -5.5065293 332.07449 3.1110957
35.049377 -5.2691922 332.13855 4.5754061
35.048248 -5.0694189 332.10468 5.5754704
52.820808 -5.1024003 332.07486 5.0747523
35.061993 -4.6920347 332.17432 7.1110058
52.722588 -4.6246953 332.09613 6.0676498
52.80584 -4.6468749 332.08936 6.0747519
35.044727 -4.2778025 332.17706 8.039773
52.564743 -4.2768273 332.19034 7.080493
35.096043 -4.1372428 332.17398 9.0324974
34.981064 -3.9186232 332.18549 9.03971
35.08548 -5.6452866 332.302 2.0320523
52.809643 -5.2842913 332.26468 5.0804625
35.011944 -5.1652961 332.28784 6.0426693
52.593349 -5.1037445 332.37006 5.0751486
52.653282 -5.0735359 332.28656 5.0678601
35.040806 -4.6550183 332.29712 7.0396519
52.859852 -4.7404013 332.3847 6.0805092
35.045128 -4.2552972 332.3053 9.1107521
35.048729 -4.176559 332.38275 9.0319929
52.752781 -4.1715493 332.28729 7.0714245
35.086529 -5.6319089 332.50757 2.0316069
35.14476 -5.4795952 332.43796 5.1030574
35.10825 -5.242094 332.48526 4.0317225
35.123722 -5.1762476 332.48007 6.103045
35.130905 -4.8177643 332.45093 7.1030493
52.552429 -4.659431 332.51962 6.0753107
52.736473 -4.6522198 332.5231 6.0653286
35.106869 -4.4468422 332.47198 8.103055
52.611664 -4.2260976 332.56989 7.0624776
35.117882 -4.0899577 332.43369 9.1030617
35.199821 -5.3573322 332.75296 4.1095982
52.730072 -5.2598715 332.69873 5.0717945
52.63113 -5.0770483 332.77365 5.0684195
35.061691 -4.2632508 332.73105 9.1098423
52.703377 -4.2511301 332.73328 7.0781898
52.697708 -4.1691561 332.65521 7.0682702
35.059856 -5.6728625 332.87936 2.0307295
35.119606 -5.5656857 332.95163 3.1093092
35.188789 -5.2673998 332.97641 5.039238
35.140694 -4.9820418 332.95972 6.0392084
33.79425 -4.7917209 332.99954 7.0427046
34.626934 -4.7571268 332.87808 7.043313
35.081009 -4.7347755 332.94116 7.1093931
52.61264 -4.6667891 332.99619 6.0628443
35.099705 -4.5017023 332.93619 8.1093817
35.034885 -4.2689252 332.9744 9.109396
52.624329 -4.2323174 332.97311 7.0628262
35.033108 -3.9544694 332.80554 9.0392694
35.137806 -5.6164618 333.04761 4.0390844
52.773663 -5.1995788 333.15887 5.0630779
52.81728 -5.155345 333.01181 5.0758028
35.134518 -4.6497421 333.0502 7.0391426
52.879108 -4.7476006 333.18524 6.0785408
35.089256 -4.2869415 333.10812 8.5740395
52.623802 -5.1610084 333.29141 5.0761747
35.141151 -4.9710259 333.3443 6.0388608
52.717522 -5.3907113 333.54004 5.0815148
35.284424 -5.19596 333.50131 5.1080709
52.670685 -5.0909486 333.51767 5.0693064
35.213356 -4.9669943 333.58948 6.1080194
52.686493 -4.8153715 333.58005 6.0815382
35.121964 -4.7328553 333.58704 7.1081533
52.857162 -4.6551919 333.44406 6.0692363
35.106201 -4.2967968 333.54956 8.5734339
52.724571 -4.2383766 333.54028 7.0699024
35.13258 -4.0527062 333.51337 9.0387526
52.658218 -4.1923919 333.51685 7.0692735
35.150093 -5.5922546 333.79004 4.0383921
35.198402 -4.485817 333.6788 8.1078892
52.798603 -4.2507787 333.68402 7.0815268
34.987213 -4.0928025 333.67996 9.102356
35.135773 -5.6834464 333.83923 3.1077051
35.195862 -5.2722788 333.90793 5.0383558
52.8405 -5.1093764 333.85049 5.0697269
35.155762 -4.6486139 333.89908 7.0383558
52.856026 -4.7459097 333.99966 6.0768275
52.953735 -4.58145 333.88785 6.069767
35.108429 -4.2828379 333.96198 9.114542
35.162491 -5.7001638 334.15933 1.1209247
35.157715 -5.5626554 334.13129 4.0380445
35.220791 -5.3930316 334.1604 3.120986
35.153591 -5.1636415 334.12073 4.1210809
35.223946 -5.007452 334.08636 6.1071839
35.220226 -4.996767 334.16428 5.121017
35.267757 -4.6338477 334.16315 7.1210866
52.73275 -5.1780171 334.28763 5.0640788
35.174675 -4.2887478 334.20325 9.1209602
35.161694 -5.2842989 334.56982 5.1065488
35.210907 -5.2337108 334.57779 5.0376382
52.695862 -5.1595597 334.42712 5.0773549
53.046959 -5.1388307 334.46619 5.0704737
35.192413 -4.9334259 334.56003 6.0376563
35.169369 -4.718564 334.56155 7.0721054
52.667686 -4.2193804 334.44949 7.0703921
52.961327 -4.2763138 334.55429 7.0773325
35.297626 -5.0485125 334.66199 5.1196475
52.739944 -4.7750044 334.67566 6.0710068
52.98114 -4.6927195 334.72073 6.0707531
35.193798 -4.2077656 334.7182 9.1195421
52.959 -4.258019 334.65845 7.0645237
53.047451 -4.228272 334.72491 7.070744
35.161575 -5.7246361 334.92236 2.3279519
35.190865 -5.2058201 334.93185 4.1188374
35.27734 -5.0434961 334.90375 5.1189456
35.221783 -4.8068352 334.89014 7.1060152
52.742966 -4.7671447 334.95422 6.0647178
35.173786 -5.3456764 335.12805 5.1057758
35.265518 -5.295804 335.05682 4.0778208
52.900978 -5.2168279 335.06894 5.0779133
35.246895 -5.1034851 335.17969 6.1056027
52.701847 -5.1672592 335.00293 5.0647535
52.7108 -4.8105068 335.17828 6.0780878
35.292267 -4.6542754 335.00098 7.1187077
35.115501 -4.3177891 335.00864 9.1186953
52.674896 -4.2996316 335.0347 7.0779381
35.209766 -5.7993479 335.28677 1.1177754
52.851673 -5.4215183 335.26666 5.0602694
52.687653 -5.1375794 335.27811 5.0714302
35.215759 -4.9617977 335.39401 6.0366273
52.841103 -4.7038441 335.23441 6.0713601
35.135231 -4.3175321 335.37598 8.5771255
52.623085 -4.2579088 335.3056 7.0682154
35.051083 -4.1018519 335.36072 9.0365133
35.117462 -5.7789683 335.52441 1.1171194
52.886765 -5.1618457 335.57278 5.0717807
52.697235 -4.8012996 335.40866 6.0602694
35.240128 -4.6912575 335.43997 7.036622
52.667828 -4.7669935 335.45438 6.0651832
52.679024 -4.2014341 335.44501 7.0602808
35.151001 -5.783989 335.77344 1.1164188
35.373985 -5.4001522 335.76227 3.1164131
35.325096 -5.2074924 335.6694 4.1167126
52.700203 -5.2545137 335.71786 5.0786352
35.21524 -5.167284 335.64136 5.5388818
52.810211 -5.1688366 335.60492 5.0654049
35.289227 -4.8568649 335.68478 6.6107922
35.182384 -4.708612 335.61737 7.0414848
52.771328 -4.7165346 335.68015 6.0718956
35.219547 -4.335197 335.61557 9.1169672
35.237152 -5.647501 335.92892 3.0358205
35.270611 -5.3830085 335.85678 4.0360022
35.263744 -5.0939808 335.8967 5.076045
35.28331 -4.6879921 335.85699 7.0360827
52.743065 -4.7402105 335.89215 6.0754642
35.254654 -4.3500061 335.9043 8.0360003
52.663788 -4.3088493 335.86026 7.0721731
35.163174 -3.9948037 335.8446 8.0413828
35.223858 -5.7434597 336.01245 4.1046677
52.698326 -5.3860607 336.16107 5.0607815
35.325527 -5.0933962 336.04031 5.1156569
52.6483 -4.7690592 336.04639 6.0657868
35.257557 -4.4774117 336.14044 8.0356274
35.230434 -4.2483482 336.03223 9.0853815
52.734215 -4.272058 336.07474 7.0723534
52.669243 -4.7835503 336.28326 6.0634589
52.66729 -4.2516289 336.30005 7.0634594
35.249992 -5.766149 336.51917 3.0694737
35.246769 -5.511641 336.58673 5.104044
52.690712 -5.2384443 336.43741 5.0662284
35.250614 -4.8642168 336.56894 7.1040449
35.219059 -4.6928964 336.49725 7.0349655
35.267761 -4.5884919 336.48029 8.104104
35.186604 -4.2418718 336.5751 9.0348301
35.230415 -4.2409253 336.50998 9.0695667
35.27375 -5.5803976 336.6991 3.0346065
35.308926 -5.3270416 336.66464 4.0347419
35.275139 -5.139111 336.73297 5.5693264
52.840103 -5.0416293 336.76801 6.0835481
35.273636 -4.9925103 336.71243 7.100553
35.192917 -4.4088635 336.67197 8.0346546
35.253166 -4.5049767 336.68665 8.1005716
52.696831 -4.3446698 336.68164 7.0749946
52.719276 -5.3577251 336.86707 5.0704775
52.667484 -5.1993556 336.8829 5.0733671
52.678619 -4.7565789 336.8223 6.0732737
35.217541 -4.2534957 336.84836 9.0343895
52.720058 -4.3021598 336.89517 7.0733337
52.879303 -4.2225041 336.94705 7.0614448
52.968277 -3.7360969 336.95547 8.0835314
35.216862 -5.5660567 337.00568 5.1036935
52.692078 -4.7889338 337.13333 6.06148
35.199421 -5.8355813 337.36328 2.033226
35.30315 -5.5093598 337.31104 5.0719299
35.195175 -5.2546573 337.35791 6.1034083
35.216957 -4.9159217 337.3392 7.1033893
35.238953 -4.2350168 337.2804 9.0685444
35.176151 -6.4691272 337.59601 0.032657202
35.14222 -6.0511761 337.5777 1.0326957
35.258308 -5.7700644 337.45294 2.1119297
35.323387 -5.2853651 337.42664 4.0333176
35.357548 -5.053287 337.43152 5.0333781
35.400589 -4.9359732 337.46591 6.0333781
35.328041 -4.6150818 337.474 7.0332966
35.265415 -4.5631943 337.41364 8.1032553
35.254154 -4.320725 337.54611 9.1117735
35.174782 -5.820363 337.62155 2.0326684
35.299404 -5.2859974 337.76575 6.1029406
53.085896 -5.2665067 337.63376 5.0741625
35.294991 -4.9385071 337.75769 7.1029458
53.1073 -4.8087163 337.67572 6.0741849
16.95145 -4.7050347 337.74048 8.1230488
35.309254 -4.5127916 337.77011 8.0326586
35.277035 -4.303843 337.70645 9.0823507
53.21117 -4.3318906 337.70538 7.0741754
35.309471 -5.6937242 337.98224 3.6067104
52.697769 -5.2416315 337.92331 5.0678792
40.402008 -5.7407918 338.13562 6.0949883
41.572029 -5.7018356 338.15732 6.09412
52.759243 -4.7972975 338.14447 6.0681348
35.295982 -4.5531573 338.1127 8.0672474
35.380356 -5.4161253 338.35437 4.5748239
52.849609 -5.4734831 338.26645 5.0807781
35.34589 -5.2882929 338.36142 6.1024394
52.677208 -5.2440104 338.33218 5.0683446
35.308472 -5.1212802 338.26578 6.0399418
52.812366 -4.803617 338.39725 6.0684371
35.280769 -4.6055098 338.26212 7.0399423
52.740105 -4.4567161 338.31479 7.0808325
52.72924 -5.3064327 338.41687 5.0688343
35.36673 -5.1331296 338.55383 5.0308461
35.306145 -4.8996849 338.50061 7.1059294
52.662479 -4.9700003 338.55649 6.0583153
52.89518 -4.8855362 338.48477 6.0780177
40.548195 -4.7873106 338.49207 7.0948586
52.620453 -4.7819076 338.58609 6.0625973
52.894093 -4.3597293 338.40637 7.0750389
35.339203 -5.7429581 338.70139 4.0395875
35.379196 -4.7318192 338.72784 7.0304675
52.698448 -4.3201809 338.6871 7.0605583
52.715355 -5.2595935 338.97607 5.5738668
52.901413 -5.3290758 338.94815 5.0756793
35.420261 -5.1192813 338.93033 5.1229744
52.674271 -4.3831358 338.97357 7.0757389
35.311306 -4.1082048 338.95071 9.0394506
35.326302 -5.7480364 339.12625 4.039197
35.389847 -5.3698592 339.03906 5.0393901
52.916576 -5.2732863 339.1124 5.0692978
35.319054 -5.1160741 339.01794 5.5810061
35.324734 -4.6613741 339.01389 7.0393739
52.818962 -4.7864432 339.16891 6.0632029
35.321579 -4.437675 339.02716 8.0393744
52.758698 -4.5059891 339.04288 7.0847764
52.691471 -4.3516479 339.11237 7.0661545
52.814278 -3.7903087 339.14859 8.0847702
35.374947 -5.3820114 339.38867 6.1017432
35.42532 -5.1291761 339.3158 5.1219406
52.750099 -4.8803811 339.34772 6.0761452
52.822117 -4.8240108 339.31531 6.0695066
35.297199 -4.3584237 339.31479 9.1172915
52.773842 -3.9458449 339.34995 8.0815744
35.239922 -5.8997822 339.5202 1.1211669
35.21537 -5.7232122 339.55292 4.0386395
52.697109 -5.265543 339.55255 5.0697861
52.871574 -5.3153048 339.44794 5.0634823
35.440399 -5.1399989 339.51633 5.1213937
35.348217 -4.9767232 339.52182 7.1016879
52.87492 -4.9979219 339.48972 6.0816622
52.66259 -4.4063931 339.52408 7.0763459
52.851223 -4.3665609 339.53439 7.0697527
35.300488 -5.6902099 339.7579 2.1205699
35.154419 -5.4107275 339.73694 5.038393
35.402958 -5.3422828 339.74127 5.1071229
52.696526 -5.3598719 339.63419 5.0764961
35.155529 -5.0901322 339.69849 6.0384583
52.666241 -4.8279705 339.74207 6.0699944
35.175755 -4.7844338 339.67499 7.0385332
35.095833 -4.4661512 339.72269 8.0383987
35.170864 -4.2129326 339.73471 9.0385094
52.750416 -3.9340947 339.78873 8.0700274
17.858141 -5.6115341 339.88492 7.121963
34.129448 -5.4439764 339.95782 5.0368328
35.363205 -5.4824185 339.95859 3.1200538
33.477631 -5.220777 339.85233 6.036222
34.057369 -5.1711674 339.90213 6.0368285
34.508751 -5.1364899 339.85544 6.0374346
35.342182 -5.1131554 339.93173 6.1069083
34.025879 -4.848278 339.88501 7.0368333
34.3545 -4.8296781 339.84503 7.0372753
35.387234 -4.8514161 339.80725 7.1070418
52.816837 -4.9081993 339.80716 6.076612
17.860106 -4.762064 339.92993 8.1219578
35.381596 -4.6443143 339.836 8.1070051
33.268368 -4.529603 339.85132 8.036046
52.60519 -4.3613181 339.87161 7.0637183
52.877731 -4.3134041 339.9693 7.0592399
35.26305 -5.8564758 340.1796 3.1066406
52.77243 -5.3002691 340.06567 5.0639944
35.300182 -4.8795695 340.15741 7.1066227
52.710892 -4.7853408 340.05521 6.0639472
52.821465 -4.4482937 340.06 7.0820699
52.750893 -3.9670198 340.02197 8.0820646
52.740894 -3.8710084 340.22711 8.0641088
35.385738 -5.6532145 340.54459 4.105937
35.336346 -5.1684346 340.54926 6.1060019
52.843502 -5.0630937 340.40262 6.082315
35.283272 -4.6341367 340.5976 8.1060114
35.362221 -4.4021015 340.49619 9.1060371
35.267868 -5.4134235 340.62823 5.1059923
35.317329 -4.9471836 340.62372 6.6120734
17.766539 -4.7906547 340.66446 8.1214924
35.396984 -4.6370192 340.76675 8.1056147
52.770081 -4.4818592 340.74402 7.0825591
52.806244 -4.3261266 340.76016 7.0596843
35.353802 -5.7013769 340.87851 3.1114612
52.826492 -5.3542433 340.8616 6.0855823
52.806839 -5.0939369 340.8284 6.0826173
35.39666 -4.9233141 340.92053 7.1054139
52.745247 -4.8854971 340.8053 6.0646796
35.42355 -4.473021 340.89807 9.1173964
52.697975 -4.4707594 340.9548 7.077817
52.930004 -4.4107122 340.99008 7.0714736
52.719818 -3.9308846 340.9635 8.0782747
35.313637 -5.8409929 341.07214 1.1167773
35.365162 -5.4632854 341.14905 5.1051736
35.441284 -5.2037234 341.02954 6.1052103
35.356087 -4.9090748 341.06281 6.6168766
52.79673 -4.9415793 341.14981 6.0599308
52.815762 -4.6042137 341.04709 7.0856409
35.347698 -4.4780498 341.01883 9.1170454
35.375645 -4.3757524 341.17743 9.1051168
52.747833 -4.3817215 341.01709 7.0648799
17.77704 -4.8119702 341.30551 8.1210966
52.849739 -4.9064832 341.3891 6.0781898
35.347961 -4.4522448 341.23428 9.116415
52.751625 -4.4859347 341.28958 7.0781212
53.007538 -4.3848276 341.21103 7.0651832
35.34108 -5.8536558 341.43939 1.1157091
52.763405 -5.5491385 341.42468 5.0600944
52.875591 -3.7234173 341.51682 8.0602169
52.729485 -5.4361372 341.76788 5.0786328
52.74501 -4.4680762 341.67218 7.0753908
52.696785 -3.9577417 341.67078 8.068882
35.388119 -5.5590463 341.9624 5.1042123
52.801682 -5.1778231 341.94949 6.0833154
52.792297 -4.9351082 341.84875 6.0603986
52.817146 -4.5415606 341.94922 7.0832806
52.738235 -4.3712606 341.90277 7.0630751
52.678383 -4.0184088 341.83295 8.0786533
35.376904 -5.8775496 342.08008 4.1041088
35.450111 -5.2222519 342.09348 5.1138339
52.720421 -5.3635049 342.13406 5.0660281
52.91452 -4.3884282 342.12521 7.0578885
52.907833 -3.9290073 342.12848 8.066061
52.779667 -3.6492703 342.11435 8.0578127
35.423958 -5.2156396 342.33743 5.113184
52.801853 -5.1178503 342.34747 6.0579238
35.395878 -4.6983142 342.3446 8.1038017
52.984329 -4.4535794 342.28537 7.0729856
52.675224 -4.0166111 342.35754 8.0730963
17.925936 -5.7260857 342.52539 7.0302391
35.374779 -5.6192131 342.44568 5.1037445
52.731487 -5.4894991 342.42651 5.0792389
35.389244 -5.2847242 342.42456 6.1037407
17.773237 -4.846725 342.50986 8.0302324
35.392372 -4.9718862 342.41174 7.1037445
52.660793 -4.4101691 342.40628 7.0662732
35.508728 -5.2311573 342.72247 5.1120777
17.888475 -4.85464 342.61465 8.1202831
17.928886 -5.6864409 342.87042 7.1201034
35.426388 -5.6338511 342.9426 3.1115842
52.721878 -5.5019622 342.9386 5.0611477
52.771938 -4.928597 342.90454 6.0611477
35.37413 -4.462388 342.88086 9.1118498
52.747623 -4.4539914 342.90741 7.0611334
52.71999 -3.8949091 342.92599 8.0611286
35.487915 -5.2602463 343.04092 5.1112857
52.779713 -5.006423 343.01059 6.0797043
35.411385 -4.5072632 343.07114 9.1113319
35.374207 -5.6811209 343.28452 3.1108148
52.803738 -5.5713997 343.35446 5.080008
17.905294 -4.8795614 343.37384 8.1197958
35.399193 -4.4715886 343.32724 9.1107302
35.40007 -4.3365707 343.26184 9.1029606
35.381088 -5.9587908 343.53308 3.1065111
17.963144 -5.7446523 343.48642 7.1232343
52.749809 -5.4529929 343.4939 5.0680265
52.709045 -4.4993019 343.55051 7.0744982
52.949337 -4.4559722 343.43832 7.0560532
52.697685 -4.0608678 343.51971 8.0772991
35.431301 -5.6987934 343.62579 5.1026487
52.720638 -5.6037979 343.7775 5.0804048
35.410736 -5.4005237 343.66849 6.1026378
52.705009 -5.4284244 343.74713 5.0747633
35.398727 -5.0537505 343.67474 7.1026425
52.709827 -4.9757795 343.74454 6.0747395
35.382111 -4.6882858 343.68661 8.1026487
52.782269 -4.4069285 343.79694 7.0586414
35.399136 -4.3379369 343.642 9.1026554
52.774193 -3.7111411 343.78601 8.0586357
17.876574 -5.7195234 343.94 7.1194053
17.851992 -4.8919306 343.814 8.1230412
52.711594 -4.4551792 343.86417 7.064868
52.71896 -3.9937398 343.89249 8.0679188
17.99225 -5.7560344 344.05887 7.1229072
52.77195 -5.0878983 344.10092 6.058794
17.986938 -4.9023085 344.0975 8.1193304
52.719204 -3.9314766 344.00311 8.0619698
40.521465 -5.856276 344.34933 6.0948763
41.653481 -5.8230224 344.39368 6.0940576
52.724812 -5.6518054 344.30423 5.0808239
52.781136 -5.0987873 344.37631 6.0808234
52.758942 -4.9235773 344.3891 6.0623183
52.701542 -4.6351461 344.32425 7.0808086
52.718475 -5.4671545 344.40948 5.0623188
40.886082 -5.0112333 344.55267 7.094594
35.427906 -5.8438807 344.79169 5.1018367
35.459534 -5.4472265 344.7226 6.1018348
35.614273 -5.3689852 344.70294 5.1075134
52.695942 -5.3763595 344.62308 5.0687943
35.555592 -5.1509943 344.78198 6.1074605
35.403503 -4.4978247 344.71533 9.1078157
35.485271 -5.8128214 344.88202 3.1073797
35.515621 -5.5518255 344.82272 4.1074429
52.720978 -5.496819 344.86188 5.0759974
35.423843 -5.0618858 344.90518 7.1017556
52.720154 -5.0339966 344.88055 6.0759974
17.862589 -4.9309034 344.86435 8.1188183
35.506664 -4.9641237 344.80917 7.1074872
35.474236 -4.6990557 344.91214 8.1073551
18.002201 -5.7779608 345.00272 7.1223459
35.364098 -4.7350078 345.04578 8.1017342
35.444492 -4.5025921 345.035 9.1071873
35.430706 -5.9154253 345.36368 5.1014872
35.465755 -5.4991431 345.27921 6.1014872
52.734428 -5.5278578 345.32339 5.0764861
17.89753 -4.9469304 345.39606 8.1184702
17.920429 -5.7656922 345.57178 7.1183367
35.538113 -5.542882 345.51877 4.1062469
35.633171 -5.4443288 345.40228 5.1062841
18.030216 -4.9488397 345.55508 8.122036
35.445831 -4.5087681 345.4581 9.1064863
35.460484 -6.0119019 345.78387 3.1059632
35.48045 -5.1917748 345.72714 6.1060185
35.523964 -4.9343634 345.60287 7.1061406
35.49353 -4.5109663 345.60583 9.106184
18.017614 -5.8001604 345.96078 7.1217618
35.509216 -5.2528348 345.91476 6.1057005
35.473003 -4.514564 345.82956 9.1058788
35.501419 -5.983892 346.04755 3.1055253
17.936792 -4.970521 346.13574 8.1179819
52.722641 -4.9257965 346.16891 6.0638871
52.963585 -4.4156475 346.11896 7.0639443
35.526325 -5.7564878 346.38535 4.1050329
35.491501 -5.5117722 346.24048 5.1052756
35.568596 -5.2848125 346.3219 6.1050501
52.789574 -5.2356215 346.28589 6.0821986
35.470024 -5.0190859 346.24478 7.1053009
52.691658 -4.6401873 346.28812 7.0822344
35.48243 -4.5222836 346.37378 9.1051092
52.55648 -4.1578541 346.22256 8.0822525
52.676022 -4.0420227 346.31018 8.0774584
17.994299 -5.8133345 346.44107 7.1214581
35.485283 -5.5513549 346.57236 5.1048551
52.67083 -5.4313154 346.55161 5.0642381
35.493069 -5.0360341 346.52075 7.1049056
18.037016 -4.9806156 346.45944 8.1214752
35.418419 -5.8537579 346.73685 4.1047521
18.063215 -5.7956681 346.76599 7.1175461
52.719692 -5.6701126 346.70279 5.0603213
35.518745 -5.3164845 346.61533 6.1047502
52.712486 -5.0378637 346.72998 6.0623913
18.005524 -4.9896693 346.76617 8.1175632
35.474426 -4.7614388 346.62024 8.1048069
52.748932 -5.0597615 346.98148 6.0781264
52.607914 -4.0978465 346.98602 8.0715466
52.935093 -4.486496 347.16162 7.0575233
52.72541 -5.4528027 347.36743 5.0720487
52.751232 -5.0830336 347.37601 6.0784979
52.944832 -4.5243821 347.30515 7.0650826
52.6707 -4.0679927 347.38928 8.0829277
52.822136 -3.7376509 347.32477 8.0575409
52.6619 -5.4249802 347.46866 5.0651507
52.75317 -5.2777371 347.48547 6.0702748
52.68951 -4.7013416 347.49075 7.083003
52.71685 -4.4503794 347.54575 7.0608978
52.663616 -4.1117783 347.50928 8.0719261
52.58577 -4.1940432 348.14212 8.0792418
21.371929 -6.3460493 348.26767 6.1185493
20.95821 -5.6861157 348.23288 7.1207356
21.009356 -5.6764402 348.26379 7.1163855
52.675293 -5.6141057 348.36816 5.0614738
52.706181 -5.0839119 348.25714 6.0703688
20.999865 -4.9729934 348.26273 8.1164026
21.00071 -4.9733982 348.27826 8.1207294
52.727173 -5.3971667 348.42468 6.0835509
52.67461 -4.7494268 348.43268 7.0835629
52.586945 -4.0969229 348.41373 8.083581
21.082479 -5.6856947 348.65344 7.1160831
21.27422 -4.981153 348.69 8.1160555
52.869438 -4.4733243 348.63165 7.0664258
52.726318 -4.2101159 348.82217 8.0797539
52.467854 -4.0643969 348.8786 8.0728216
21.537563 -6.3567724 349.10904 6.1156764
52.690994 -5.5220995 349.13489 5.5730157
52.69381 -5.0295029 349.11542 6.0620608
21.425014 -4.9933472 349.18439 8.1156597
52.665031 -4.7821174 349.05994 7.0839124
52.48819 -4.474822 349.12738 7.0619555
52.357044 -4.2280331 349.04413 8.0801487
52.384796 -4.1718645 349.0672 8.0740576
21.209612 -5.6978664 349.21738 7.1156416
52.62635 -5.5274305 349.54541 5.0709944
52.64901 -5.0978966 349.5451 6.0745835
52.646107 -5.2282982 349.68222 6.080543
52.633438 -5.0511751 349.61172 6.0674505
52.597301 -4.5808549 349.76721 7.0676045
52.621471 -5.8062615 349.96072 5.0807986
52.666977 -5.0253921 349.93759 6.0627189
52.623112 -5.5689111 350.01678 5.0627656
52.398113 -4.2593217 350.14844 8.0810099
40.435493 -6.073699 350.25409 6.094852
41.289299 -6.0462232 350.26843 6.0942459
52.625053 -5.5161762 350.33685 5.0682926
52.646698 -5.1239157 350.29596 6.0636139
52.565788 -4.8012609 350.22589 7.0809922
52.526207 -4.5267897 350.39566 7.0589476
52.639889 -5.607574 350.50488 5.0756769
52.640907 -5.2779722 350.40204 6.0811
52.651302 -5.1474733 350.52731 6.0756764
40.720177 -5.0769262 350.64169 7.0946293
52.238674 -3.8846393 350.6265 8.058918
52.584648 -5.5239382 350.94284 5.068994
52.64402 -5.592823 350.88449 6.084856
52.589676 -5.0770402 350.93491 6.0689707
52.562202 -4.8389516 350.94806 7.0815277
52.644325 -4.8826165 350.96265 7.084868
52.522743 -4.6134348 350.98688 7.0690069
52.62397 -5.6497941 351.14764 5.076375
52.561943 -5.5428071 351.24365 5.0638242
52.412849 -4.5932369 351.20853 7.0637097
52.601868 -5.538672 351.59937 5.0641756
52.647606 -5.0228977 351.58151 6.0641751
52.398743 -4.6267729 351.4303 7.0695205
52.709953 -4.5947666 351.53476 7.0641561
52.489418 -4.1857486 351.41339 8.0694942
21.304182 -5.7865572 351.72159 7.1137576
52.608398 -5.3761868 351.78427 6.082099
21.255745 -5.0756207 351.79193 8.1137285
52.550076 -4.7843652 351.78412 7.0821109
21.585375 -6.4202762 351.82977 6.1179891
21.749325 -6.4694409 351.92883 6.1181107
21.469168 -5.8032255 351.80881 7.1227422
21.269308 -5.7710099 351.82739 7.1180005
21.311138 -5.0868268 351.88785 8.1179714
21.546898 -5.1021042 351.99866 8.1226425
52.328552 -4.3146811 351.94974 8.0823383
21.375738 -5.8001776 352.18314 7.113409
21.900274 -6.4020624 352.2128 6.1176853
21.45344 -5.8153954 352.34457 7.1223435
21.513395 -5.1005411 352.38669 8.1177168
21.551548 -5.7735395 352.44879 7.1175094
52.582668 -5.4255242 352.47375 6.0825634
52.544731 -4.8163896 352.41943 7.0825291
52.53529 -4.7580485 352.55811 7.0778079
21.777134 -6.466856 352.74612 6.1150751
52.557053 -5.5723863 352.76852 5.0711684
21.429483 -5.8229127 352.81711 7.1129441
21.426197 -5.793932 352.82986 7.1172056
52.530632 -5.2871056 352.97394 6.0782361
21.486454 -5.1068506 352.82501 8.1150818
52.483879 -5.5955944 354.16214 5.0667462
52.500275 -5.1285396 354.16437 6.0667443
52.397232 -4.3351216 354.3353 8.0795021
21.275667 -5.8746028 354.4285 7.1207242
52.549278 -5.5811963 354.4895 6.0558481
21.332813 -5.1885834 354.56073 8.1206484
21.159721 -5.8734651 354.72153 7.1157322
52.496452 -5.6945658 354.78708 5.0619445
21.128506 -5.1807919 354.72241 8.1157494
52.54203 -5.1353917 354.75909 6.061944
21.607344 -6.5311079 354.80731 6.1204543
21.433729 -5.8824077 354.86801 7.0303617
52.502869 -5.5986576 354.87619 5.0675426
21.491459 -5.1977873 354.97501 8.1203432
52.539776 -5.1333399 355.13385 6.0622478
52.564514 -4.6498895 355.14905 7.0586429
21.625957 -6.5378003 355.2247 6.1152763
21.390005 -5.8875608 355.22513 7.1201143
52.473946 -5.6812549 355.29697 5.074162
52.483971 -5.2790327 355.29004 6.066432
21.473373 -5.1909962 355.33591 8.1152363
52.467766 -5.1420107 355.30829 6.0680113
52.43652 -4.3140597 355.39117 8.0742178
21.757273 -6.5291128 355.44489 6.1199617
21.304638 -5.8922334 355.48837 7.1151237
52.469116 -5.6748819 355.59085 5.0625973
52.48864 -5.1469021 355.57162 6.0683174
52.446739 -4.3676982 355.45724 8.08041
52.777321 -4.1405559 355.55951 8.0627165
21.295578 -5.9046082 355.65665 7.1197629
52.485485 -5.9275417 355.75204 5.0806875
21.107374 -5.2281785 355.63516 8.1197796
52.416508 -4.9170899 355.79578 7.080718
21.685551 -6.5595474 355.87106 6.1147618
21.297239 -5.9111218 355.97607 7.1147504
21.286884 -5.2107458 355.8208 8.1148844
52.503273 -5.3787622 355.85559 6.0807333
52.762302 -4.219296 355.9675 8.0687962
52.459099 -5.1304884 356.13742 6.0630641
52.419346 -5.7355943 356.27933 5.075285
52.61338 -4.6902409 356.30917 7.0691757
52.373528 -4.6953745 356.4527 7.0633011
52.432171 -5.6525984 356.74091 5.0636005
52.424706 -5.2986698 356.70761 6.0757294
52.45945 -5.1304326 356.75681 6.0636234
52.354748 -4.7056885 356.8558 7.0697846
23.376934 -6.4772015 357.18076 6.0329747
52.512386 -4.8384838 357.2139 7.0762115
23.278166 -5.8212395 357.65305 7.1220326
52.436974 -5.5263348 357.91788 6.0822434
52.418892 -4.9314971 357.95508 7.0822549
23.302542 -5.8461771 358.12109 7.1177697
52.355953 -5.7729058 358.06396 5.0771937
23.315622 -5.2411923 358.09241 8.1178112
52.925812 -4.7379303 358.10324 7.0712652
52.571297 -4.325438 358.08954 8.0822258
52.353161 -5.3867049 358.25494 6.0773668
52.869892 -4.2813139 358.2348 8.0714016
52.354851 -5.6289268 358.79062 5.0655813
52.372585 -5.2578096 358.85724 6.0632677
52.35836 -5.8688216 359.05618 5.0610371
52.731701 -4.3105345 359.06345 8.0723639
18.322029 -6.2167292 359.95999 7.1165442
18.057158 -5.4372382 360.01505 8.116538
52.811195 -4.8175631 360.55627 7.074059
18.40675 -6.2372627 360.77295 7.1159806
18.332352 -5.4502239 360.74152 8.1160221
52.2966 -5.2936234 360.64423 6.0743017
52.957348 -4.3484049 360.68524 8.0741482
52.241619 -5.2527094 360.92639 6.067873
52.236084 -6.0375829 361.3548 5.0802298
52.227253 -5.7437525 361.2851 5.0716848
18.252956 -5.4675927 361.27194 8.1156693
52.213104 -5.3190904 361.24133 6.0750055
52.278339 -5.4935784 361.4166 6.0802293
52.231358 -5.7187076 361.68793 5.0687594
52.459351 -5.0513864 361.67548 7.080307
52.192963 -5.0633602 361.86624 7.0806108
52.19038 -6.0961494 362.00995 5.0807672
52.233009 -5.5542855 362.29495 6.0809307
52.173466 -5.0834608 362.25433 7.0809155
52.16975 -5.842011 362.40201 5.0763226
52.202888 -5.3765378 362.41104 6.0762978
52.179737 -5.7839828 362.88232 5.0642128
52.20385 -5.2724495 362.87814 6.0642123
52.153217 -5.8036065 363.05649 5.0770168
52.177673 -5.4116888 363.07083 6.077003
52.202858 -5.3011332 363.13043 6.0704355
52.199989 -5.6343231 363.38977 6.0570951
52.30024 -4.8389435 363.23471 7.0705428
51.983166 -4.8763123 363.5625 7.0570607
52.098522 -5.4477515 363.72791 6.0777068
52.196774 -5.7773457 363.93243 5.0652633
52.109398 -5.8758984 364.10889 5.0780959
52.093971 -5.7745466 364.15659 5.0716705
52.029865 -4.8749032 364.18887 7.0654507
52.086975 -5.9044647 364.51157 5.0784941
52.117142 -5.4009919 364.5527 6.0784941
51.988693 -4.8806663 364.54117 7.072103
52.104469 -5.7518682 364.98294 6.0827985
17.585316 -6.3812132 365.12933 7.1158776
52.102867 -5.9917755 365.05789 5.0612054
17.51108 -5.5791607 365.13104 8.1158943
52.138191 -5.409265 365.03571 6.0612059
52.158134 -5.1332307 365.10172 7.0828109
52.117241 -4.5010805 365.16928 8.0828514
52.067135 -5.8433142 365.76639 5.0735583
52.054367 -5.8927536 365.88611 5.572587
52.068184 -5.592001 365.99585 6.058311
52.122688 -5.3935995 365.93307 6.0673718
52.047928 -5.1749353 365.88214 7.083324
52.141747 -4.8979564 365.93851 7.0583224
51.973831 -4.3935137 365.9278 8.0618181
52.039848 -5.4026179 366.09198 6.0679655
